ply
format ascii 1.0
element vertex 80
property float x
property float y
property float z
property uchar red
property uchar green
property uchar blue
end_header
5.093090 -0.369285 -12.860438 255 0 0
5.093258 -0.369449 -13.360438 0 255 0
4.517134 -1.539711 -10.923553 255 0 0
4.517989 -1.566485 -11.422835 0 255 0
4.055823 -0.141788 -11.771559 255 0 0
4.118696 -0.205476 -12.263485 0 255 0
2.816546 -0.539886 -10.278263 255 0 0
2.798354 -0.581829 -10.776169 0 255 0
2.105148 -0.646268 -13.788153 255 0 0
2.055911 -0.659119 -14.285557 0 255 0
5.389243 -1.686409 -10.434106 255 0 0
5.373537 -1.698994 -10.933701 0 255 0
1.416416 0.362361 -12.572436 255 0 0
1.422403 0.378537 -13.072139 0 255 0
3.126768 -0.364741 -7.282187 255 0 0
3.140666 -0.440551 -7.776211 0 255 0
4.840037 -1.178501 -7.567682 255 0 0
4.849258 -1.291306 -8.054704 0 255 0
1.012483 -0.676987 -8.810470 255 0 0
1.015665 -0.761463 -9.303272 0 255 0
0.998899 -0.662948 -10.283480 255 0 0
1.075490 -0.682978 -10.777173 0 255 0
1.144103 0.392960 -11.930920 255 0 0
1.247920 0.398089 -12.419996 0 255 0
-1.213831 -1.604295 -11.598821 255 0 0
-1.542639 -1.626314 -11.974854 0 255 0
6.376631 -1.039222 -8.031437 255 0 0
6.418431 -1.070725 -8.528690 0 255 0
3.032751 -0.919494 -5.240394 255 0 0
3.139188 -1.064086 -5.707046 0 255 0
1.075946 -0.563192 -5.672430 255 0 0
1.105258 -0.672292 -6.159501 0 255 0
-0.677244 0.482022 -14.490102 255 0 0
-0.594472 0.446653 -14.981933 0 255 0
-1.083483 1.100369 -9.951951 255 0 0
-1.025167 1.133744 -10.447416 0 255 0
0.542197 -0.666565 -6.052039 255 0 0
0.685984 -0.726032 -6.527212 0 255 0
-3.267464 0.552750 -14.728329 255 0 0
-3.268074 0.510518 -15.226542 0 255 0
-4.840204 2.176456 -13.992599 255 0 0
-4.838962 2.188416 -14.492455 0 255 0
1.753610 0.211752 -15.893493 255 0 0
1.876217 0.155649 -16.374970 0 255 0
-4.361051 -0.580131 -11.213631 255 0 0
-4.370103 -0.617877 -11.712122 0 255 0
5.545664 -0.491498 -5.359576 255 0 0
5.604547 -0.573644 -5.849255 0 255 0
6.035891 -0.214121 -5.692728 255 0 0
6.089492 -0.270858 -6.186598 0 255 0
6.656222 -0.067605 -5.864419 255 0 0
6.742326 -0.099106 -6.355940 0 255 0
-1.217994 -0.557226 -6.243098 255 0 0
-1.119424 -0.618451 -6.729447 0 255 0
-5.049284 0.604791 -14.201788 255 0 0
-5.015091 0.593456 -14.700488 0 255 0
-8.314304 -1.611823 -10.473473 255 0 0
-8.697191 -1.642227 -10.793587 0 255 0
-5.067536 0.842040 -10.670910 255 0 0
-5.022461 0.839948 -11.168870 0 255 0
-7.370446 0.589358 -13.282173 255 0 0
-7.355895 0.547948 -13.780242 0 255 0
-10.201562 -0.274720 -13.579030 255 0 0
-10.315814 -0.341769 -14.061162 0 255 0
-5.292140 -0.548372 -7.287878 255 0 0
-5.229128 -0.582344 -7.782727 0 255 0
-9.668772 -0.390578 -10.762170 255 0 0
-9.754248 -0.435656 -11.252743 0 255 0
-7.623419 0.044449 -11.655186 255 0 0
-7.575374 0.049377 -12.152848 0 255 0
-4.198969 -0.588885 -7.416271 255 0 0
-4.169650 -0.615984 -7.914675 0 255 0
-13.264942 -1.446870 -8.798630 255 0 0
-13.619547 -1.530794 -9.140992 0 255 0
-12.181666 -2.194059 -8.701591 255 0 0
-12.585079 -2.240033 -8.993386 0 255 0
-9.753365 -0.296746 -7.489599 255 0 0
-9.798823 -0.341206 -7.985540 0 255 0
-8.507126 -0.647570 -7.409975 255 0 0
-8.412686 -0.669146 -7.900501 0 255 0
